ply
format ascii 1.0
comment PCL generated
element vertex 865
property float x
property float y
property float z
property uchar red
property uchar green
property uchar blue
end_header
-3.0999999999999996 1.9000000000000004 -3.0999999999999996 196 196 196
-3.0999999999999996 1.9000000000000004 -2.8999999999999995 196 196 196
-3.0999999999999996 1.9000000000000004 2.700000000000001 196 196 196
-3.0999999999999996 1.9000000000000004 2.9000000000000004 196 196 196
-3.0999999999999996 1.9000000000000004 3.1000000000000014 196 196 196
-3.0999999999999996 2.1000000000000014 -2.8999999999999995 196 196 196
-3.0999999999999996 2.1000000000000014 -2.6999999999999993 196 196 196
-3.0999999999999996 2.1000000000000014 2.700000000000001 196 196 196
-3.0999999999999996 2.1000000000000014 2.9000000000000004 196 196 196
-3.0999999999999996 2.3000000000000007 -2.6999999999999993 196 196 196
-3.0999999999999996 2.3000000000000007 -2.5 196 196 196
-3.0999999999999996 2.3000000000000007 2.5 196 196 196
-3.0999999999999996 2.3000000000000007 2.700000000000001 196 196 196
-3.0999999999999996 2.5 -2.3 196 196 196
-3.0999999999999996 2.5 2.3000000000000007 196 196 196
-3.0999999999999996 2.5 2.5 196 196 196
-3.0999999999999996 2.5 2.700000000000001 196 196 196
-3.0999999999999996 2.700000000000001 -2.3 196 196 196
-3.0999999999999996 2.700000000000001 -2.0999999999999996 196 196 196
-3.0999999999999996 2.700000000000001 2.3000000000000007 196 196 196
-3.0999999999999996 2.700000000000001 2.5 196 196 196
-3.0999999999999996 2.9000000000000004 -2.3 196 196 196
-3.0999999999999996 2.9000000000000004 -1.9000000000000004 196 196 196
-3.0999999999999996 2.9000000000000004 -1.6999999999999993 196 196 196
-3.0999999999999996 2.9000000000000004 1.9000000000000004 196 196 196
-3.0999999999999996 2.9000000000000004 2.1000000000000014 196 196 196
-3.0999999999999996 3.1000000000000014 -2.0999999999999996 196 196 196
-3.0999999999999996 3.1000000000000014 -1.9000000000000004 196 196 196
-3.0999999999999996 3.1000000000000014 -1.299999999999999 196 196 196
-3.0999999999999996 3.1000000000000014 -1.0999999999999996 196 196 196
-3.0999999999999996 3.1000000000000014 1.5 196 196 196
-3.0999999999999996 3.1000000000000014 1.700000000000001 196 196 196
-3.0999999999999996 3.1000000000000014 1.9000000000000004 196 196 196
-3.0999999999999996 3.3000000000000007 -1.6999999999999993 196 196 196
-3.0999999999999996 3.3000000000000007 -1.5 196 196 196
-3.0999999999999996 3.3000000000000007 -0.6999999999999993 196 196 196
-3.0999999999999996 3.3000000000000007 -0.5 196 196 196
-3.0999999999999996 3.3000000000000007 -0.29999999999999893 196 196 196
-3.0999999999999996 3.3000000000000007 -0.09999999999999964 196 196 196
-3.0999999999999996 3.3000000000000007 0.10000000000000142 196 196 196
-3.0999999999999996 3.3000000000000007 0.7000000000000011 196 196 196
-3.0999999999999996 3.3000000000000007 1.1000000000000014 196 196 196
-3.0999999999999996 3.3000000000000007 1.3000000000000007 196 196 196
-3.0999999999999996 3.3000000000000007 1.5 196 196 196
-3.0999999999999996 3.5 -1.5 196 196 196
-3.0999999999999996 3.5 -1.299999999999999 196 196 196
-3.0999999999999996 3.5 -1.0999999999999996 196 196 196
-3.0999999999999996 3.5 0.7000000000000011 196 196 196
-3.0999999999999996 3.5 0.9000000000000004 196 196 196
-3.0999999999999996 3.700000000000001 -0.9000000000000004 196 196 196
-3.0999999999999996 3.700000000000001 -0.6999999999999993 196 196 196
-3.0999999999999996 3.700000000000001 -0.5 196 196 196
-3.0999999999999996 3.700000000000001 -0.29999999999999893 196 196 196
-3.0999999999999996 3.700000000000001 -0.09999999999999964 196 196 196
-3.0999999999999996 3.700000000000001 0.10000000000000142 196 196 196
-3.0999999999999996 3.700000000000001 0.3000000000000007 196 196 196
-3.0999999999999996 3.700000000000001 0.5 196 196 196
-2.8999999999999995 -7.9 -0.09999999999999964 196 196 196
-2.8999999999999995 -7.9 0.10000000000000142 196 196 196
-2.8999999999999995 -7.9 0.3000000000000007 196 196 196
-2.8999999999999995 -7.699999999999999 -0.29999999999999893 196 196 196
-2.8999999999999995 -7.699999999999999 0.5 196 196 196
-2.8999999999999995 -7.699999999999999 0.7000000000000011 196 196 196
-2.8999999999999995 -7.5 -0.5 196 196 196
-2.8999999999999995 -7.5 1.1000000000000014 196 196 196
-2.8999999999999995 -7.5 1.3000000000000007 196 196 196
-2.8999999999999995 -7.3 1.700000000000001 196 196 196
-2.8999999999999995 -6.9 -0.9000000000000004 196 196 196
-2.8999999999999995 -6.9 -0.6999999999999993 196 196 196
-2.8999999999999995 -6.9 3.3000000000000007 196 196 196
-2.8999999999999995 -6.9 3.5 196 196 196
-2.8999999999999995 -6.699999999999999 -1.299999999999999 196 196 196
-2.8999999999999995 -6.699999999999999 -1.0999999999999996 196 196 196
-2.8999999999999995 -6.699999999999999 3.1000000000000014 196 196 196
-2.8999999999999995 -6.699999999999999 3.9000000000000004 196 196 196
-2.8999999999999995 -6.699999999999999 4.100000000000001 196 196 196
-2.8999999999999995 -6.5 -2.0999999999999996 196 196 196
-2.8999999999999995 -6.5 -1.6999999999999993 196 196 196
-2.8999999999999995 -6.5 -1.5 196 196 196
-2.8999999999999995 -6.5 4.300000000000001 196 196 196
-2.8999999999999995 -6.5 4.5 196 196 196
-2.8999999999999995 -6.5 4.700000000000001 196 196 196
-2.8999999999999995 -6.3 -2.0999999999999996 196 196 196
-2.8999999999999995 -6.3 -1.6999999999999993 196 196 196
-2.8999999999999995 -6.3 2.1000000000000014 196 196 196
-2.8999999999999995 -6.3 4.9 196 196 196
-2.8999999999999995 -6.1 -2.3 196 196 196
-2.8999999999999995 -6.1 -1.9000000000000004 196 196 196
-2.8999999999999995 -6.1 5.100000000000001 196 196 196
-2.8999999999999995 -5.8999999999999995 -2.3 196 196 196
-2.8999999999999995 -5.8999999999999995 3.3000000000000007 196 196 196
-2.8999999999999995 -5.7 -2.3 196 196 196
-2.8999999999999995 -5.7 -2.0999999999999996 196 196 196
-2.8999999999999995 -5.7 3.1000000000000014 196 196 196
-2.8999999999999995 -5.7 3.9000000000000004 196 196 196
-2.8999999999999995 -5.5 3.9000000000000004 196 196 196
-2.8999999999999995 -5.5 4.100000000000001 196 196 196
-2.8999999999999995 -5.3 -3.3 196 196 196
-2.8999999999999995 -5.3 -2.5 196 196 196
-2.8999999999999995 -5.1 -3.5 196 196 196
-2.8999999999999995 -5.1 4.700000000000001 196 196 196
-2.8999999999999995 -5.1 4.9 196 196 196
-2.8999999999999995 -4.8999999999999995 -3.5 196 196 196
-2.8999999999999995 -4.8999999999999995 -2.8999999999999995 196 196 196
-2.8999999999999995 -4.8999999999999995 -2.6999999999999993 196 196 196
-2.8999999999999995 -4.8999999999999995 5.5 196 196 196
-2.8999999999999995 -4.699999999999999 -3.8999999999999995 196 196 196
-2.8999999999999995 -4.699999999999999 -2.8999999999999995 196 196 196
-2.8999999999999995 -4.5 -3.8999999999999995 196 196 196
-2.8999999999999995 -4.5 -3.6999999999999993 196 196 196
-2.8999999999999995 -4.5 -3.0999999999999996 196 196 196
-2.8999999999999995 -4.5 6.300000000000001 196 196 196
-2.8999999999999995 -4.3 -3.8999999999999995 196 196 196
-2.8999999999999995 -4.1 -4.1 196 196 196
-2.8999999999999995 -4.1 -3.8999999999999995 196 196 196
-2.8999999999999995 -3.8999999999999995 -4.1 196 196 196
-2.8999999999999995 -3.8999999999999995 -3.8999999999999995 196 196 196
-2.8999999999999995 -3.8999999999999995 -3.3 196 196 196
-2.8999999999999995 -3.8999999999999995 7.300000000000001 196 196 196
-2.8999999999999995 -3.6999999999999993 -4.3 196 196 196
-2.8999999999999995 -3.6999999999999993 -4.1 196 196 196
-2.8999999999999995 -3.6999999999999993 -3.6999999999999993 196 196 196
-2.8999999999999995 -3.6999999999999993 7.100000000000001 196 196 196
-2.8999999999999995 -3.5 -4.3 196 196 196
-2.8999999999999995 -3.5 -3.8999999999999995 196 196 196
-2.8999999999999995 -3.5 -3.6999999999999993 196 196 196
-2.8999999999999995 -3.5 7.100000000000001 196 196 196
-2.8999999999999995 -3.5 7.300000000000001 196 196 196
-2.8999999999999995 -3.3 -4.3 196 196 196
-2.8999999999999995 -3.3 -3.8999999999999995 196 196 196
-2.8999999999999995 -3.3 6.5 196 196 196
-2.8999999999999995 -3.3 6.900000000000002 196 196 196
-2.8999999999999995 -3.3 7.100000000000001 196 196 196
-2.8999999999999995 -3.0999999999999996 -4.5 196 196 196
-2.8999999999999995 -3.0999999999999996 -3.8999999999999995 196 196 196
-2.8999999999999995 -3.0999999999999996 6.699999999999999 196 196 196
-2.8999999999999995 -3.0999999999999996 6.900000000000002 196 196 196
-2.8999999999999995 -3.0999999999999996 7.100000000000001 196 196 196
-2.8999999999999995 -2.8999999999999995 -4.5 196 196 196
-2.8999999999999995 -2.8999999999999995 6.699999999999999 196 196 196
-2.8999999999999995 -2.8999999999999995 7.100000000000001 196 196 196
-2.8999999999999995 -2.6999999999999993 -4.5 196 196 196
-2.8999999999999995 -2.6999999999999993 6.699999999999999 196 196 196
-2.8999999999999995 -2.6999999999999993 6.900000000000002 196 196 196
-2.8999999999999995 -2.5 -4.5 196 196 196
-2.8999999999999995 -2.5 6.699999999999999 196 196 196
-2.8999999999999995 -2.5 6.900000000000002 196 196 196
-2.8999999999999995 -2.3 -4.5 196 196 196
-2.8999999999999995 -2.3 -4.3 196 196 196
-2.8999999999999995 -2.3 -4.1 196 196 196
-2.8999999999999995 -2.3 6.699999999999999 196 196 196
-2.8999999999999995 -2.3 6.900000000000002 196 196 196
-2.8999999999999995 -2.0999999999999996 -4.5 196 196 196
-2.8999999999999995 -2.0999999999999996 -4.3 196 196 196
-2.8999999999999995 -2.0999999999999996 -4.1 196 196 196
-2.8999999999999995 -2.0999999999999996 5.9 196 196 196
-2.8999999999999995 -2.0999999999999996 6.300000000000001 196 196 196
-2.8999999999999995 -2.0999999999999996 6.5 196 196 196
-2.8999999999999995 -2.0999999999999996 6.699999999999999 196 196 196
-2.8999999999999995 -2.0999999999999996 6.900000000000002 196 196 196
-2.8999999999999995 -1.9000000000000004 -4.3 196 196 196
-2.8999999999999995 -1.9000000000000004 -4.1 196 196 196
-2.8999999999999995 -1.9000000000000004 6.5 196 196 196
-2.8999999999999995 -1.9000000000000004 6.699999999999999 196 196 196
-2.8999999999999995 -1.9000000000000004 6.900000000000002 196 196 196
-2.8999999999999995 -1.6999999999999993 -4.3 196 196 196
-2.8999999999999995 -1.6999999999999993 -4.1 196 196 196
-2.8999999999999995 -1.6999999999999993 6.300000000000001 196 196 196
-2.8999999999999995 -1.6999999999999993 6.699999999999999 196 196 196
-2.8999999999999995 -1.5 -4.1 196 196 196
-2.8999999999999995 -1.5 -3.8999999999999995 196 196 196
-2.8999999999999995 -1.5 6.300000000000001 196 196 196
-2.8999999999999995 -1.5 6.5 196 196 196
-2.8999999999999995 -1.299999999999999 -4.1 196 196 196
-2.8999999999999995 -1.299999999999999 -3.8999999999999995 196 196 196
-2.8999999999999995 -1.299999999999999 -3.6999999999999993 196 196 196
-2.8999999999999995 -1.299999999999999 4.300000000000001 196 196 196
-2.8999999999999995 -1.299999999999999 6.100000000000001 196 196 196
-2.8999999999999995 -1.299999999999999 6.300000000000001 196 196 196
-2.8999999999999995 -1.0999999999999996 -3.8999999999999995 196 196 196
-2.8999999999999995 -1.0999999999999996 -3.6999999999999993 196 196 196
-2.8999999999999995 -1.0999999999999996 -3.5 196 196 196
-2.8999999999999995 -1.0999999999999996 4.100000000000001 196 196 196
-2.8999999999999995 -1.0999999999999996 6.100000000000001 196 196 196
-2.8999999999999995 -1.0999999999999996 6.300000000000001 196 196 196
-2.8999999999999995 -0.9000000000000004 -3.8999999999999995 196 196 196
-2.8999999999999995 -0.9000000000000004 -3.6999999999999993 196 196 196
-2.8999999999999995 -0.9000000000000004 -3.5 196 196 196
-2.8999999999999995 -0.9000000000000004 5.9 196 196 196
-2.8999999999999995 -0.9000000000000004 6.100000000000001 196 196 196
-2.8999999999999995 -0.9000000000000004 6.300000000000001 196 196 196
-2.8999999999999995 -0.6999999999999993 -3.6999999999999993 196 196 196
-2.8999999999999995 -0.6999999999999993 -3.5 196 196 196
-2.8999999999999995 -0.6999999999999993 -3.3 196 196 196
-2.8999999999999995 -0.6999999999999993 4.100000000000001 196 196 196
-2.8999999999999995 -0.6999999999999993 5.9 196 196 196
-2.8999999999999995 -0.6999999999999993 6.100000000000001 196 196 196
-2.8999999999999995 -0.5 -3.6999999999999993 196 196 196
-2.8999999999999995 -0.5 -3.5 196 196 196
-2.8999999999999995 -0.5 5.700000000000001 196 196 196
-2.8999999999999995 -0.5 5.9 196 196 196
-2.8999999999999995 -0.29999999999999893 -3.6999999999999993 196 196 196
-2.8999999999999995 -0.29999999999999893 -3.5 196 196 196
-2.8999999999999995 -0.29999999999999893 5.700000000000001 196 196 196
-2.8999999999999995 -0.29999999999999893 5.9 196 196 196
-2.8999999999999995 -0.09999999999999964 -3.6999999999999993 196 196 196
-2.8999999999999995 -0.09999999999999964 5.300000000000001 196 196 196
-2.8999999999999995 -0.09999999999999964 5.700000000000001 196 196 196
-2.8999999999999995 -0.09999999999999964 5.9 196 196 196
-2.8999999999999995 0.10000000000000142 -3.6999999999999993 196 196 196
-2.8999999999999995 0.10000000000000142 5.5 196 196 196
-2.8999999999999995 0.10000000000000142 5.700000000000001 196 196 196
-2.8999999999999995 0.3000000000000007 -3.6999999999999993 196 196 196
-2.8999999999999995 0.3000000000000007 5.100000000000001 196 196 196
-2.8999999999999995 0.3000000000000007 5.300000000000001 196 196 196
-2.8999999999999995 0.3000000000000007 5.5 196 196 196
-2.8999999999999995 0.5 -3.6999999999999993 196 196 196
-2.8999999999999995 0.5 4.9 196 196 196
-2.8999999999999995 0.5 5.100000000000001 196 196 196
-2.8999999999999995 0.5 5.300000000000001 196 196 196
-2.8999999999999995 0.5 5.5 196 196 196
-2.8999999999999995 0.7000000000000011 -3.6999999999999993 196 196 196
-2.8999999999999995 0.7000000000000011 -3.5 196 196 196
-2.8999999999999995 0.7000000000000011 4.9 196 196 196
-2.8999999999999995 0.7000000000000011 5.100000000000001 196 196 196
-2.8999999999999995 0.7000000000000011 5.300000000000001 196 196 196
-2.8999999999999995 0.9000000000000004 -3.5 196 196 196
-2.8999999999999995 0.9000000000000004 -3.3 196 196 196
-2.8999999999999995 0.9000000000000004 4.700000000000001 196 196 196
-2.8999999999999995 0.9000000000000004 4.9 196 196 196
-2.8999999999999995 0.9000000000000004 5.100000000000001 196 196 196
-2.8999999999999995 1.1000000000000014 -3.5 196 196 196
-2.8999999999999995 1.1000000000000014 4.5 196 196 196
-2.8999999999999995 1.1000000000000014 4.700000000000001 196 196 196
-2.8999999999999995 1.1000000000000014 4.9 196 196 196
-2.8999999999999995 1.1000000000000014 5.100000000000001 196 196 196
-2.8999999999999995 1.3000000000000007 -3.5 196 196 196
-2.8999999999999995 1.3000000000000007 4.300000000000001 196 196 196
-2.8999999999999995 1.3000000000000007 4.5 196 196 196
-2.8999999999999995 1.3000000000000007 4.700000000000001 196 196 196
-2.8999999999999995 1.3000000000000007 4.9 196 196 196
-2.8999999999999995 1.5 -3.3 196 196 196
-2.8999999999999995 1.5 3.5 196 196 196
-2.8999999999999995 1.5 3.700000000000001 196 196 196
-2.8999999999999995 1.5 3.9000000000000004 196 196 196
-2.8999999999999995 1.5 4.100000000000001 196 196 196
-2.8999999999999995 1.5 4.300000000000001 196 196 196
-2.8999999999999995 1.5 4.5 196 196 196
-2.8999999999999995 1.700000000000001 -3.0999999999999996 196 196 196
-2.8999999999999995 1.700000000000001 3.1000000000000014 196 196 196
-2.8999999999999995 1.700000000000001 3.3000000000000007 196 196 196
-2.8999999999999995 1.700000000000001 3.5 196 196 196
-2.8999999999999995 1.700000000000001 3.700000000000001 196 196 196
-2.8999999999999995 1.700000000000001 3.9000000000000004 196 196 196
-2.8999999999999995 1.700000000000001 4.100000000000001 196 196 196
-2.8999999999999995 1.9000000000000004 -3.0999999999999996 196 196 196
-2.8999999999999995 1.9000000000000004 -2.8999999999999995 196 196 196
-2.8999999999999995 1.9000000000000004 2.9000000000000004 196 196 196
-2.8999999999999995 1.9000000000000004 3.1000000000000014 196 196 196
-2.8999999999999995 2.1000000000000014 -2.8999999999999995 196 196 196
-2.8999999999999995 2.1000000000000014 2.700000000000001 196 196 196
-2.8999999999999995 2.1000000000000014 2.9000000000000004 196 196 196
-2.8999999999999995 2.1000000000000014 3.1000000000000014 196 196 196
-2.8999999999999995 2.3000000000000007 -2.6999999999999993 196 196 196
-2.8999999999999995 2.3000000000000007 2.5 196 196 196
-2.8999999999999995 2.3000000000000007 2.700000000000001 196 196 196
-2.8999999999999995 2.5 -2.5 196 196 196
-2.8999999999999995 2.5 2.3000000000000007 196 196 196
-2.8999999999999995 2.5 2.5 196 196 196
-2.8999999999999995 2.5 2.700000000000001 196 196 196
-2.8999999999999995 2.700000000000001 -2.3 196 196 196
-2.8999999999999995 2.700000000000001 -2.0999999999999996 196 196 196
-2.8999999999999995 2.700000000000001 2.1000000000000014 196 196 196
-2.8999999999999995 2.700000000000001 2.3000000000000007 196 196 196
-2.8999999999999995 2.700000000000001 2.5 196 196 196
-2.8999999999999995 2.9000000000000004 -1.9000000000000004 196 196 196
-2.8999999999999995 2.9000000000000004 -1.6999999999999993 196 196 196
-2.8999999999999995 2.9000000000000004 1.9000000000000004 196 196 196
-2.8999999999999995 2.9000000000000004 2.1000000000000014 196 196 196
-2.8999999999999995 2.9000000000000004 2.3000000000000007 196 196 196
-2.8999999999999995 2.9000000000000004 2.5 196 196 196
-2.8999999999999995 3.1000000000000014 -2.0999999999999996 196 196 196
-2.8999999999999995 3.1000000000000014 -1.5 196 196 196
-2.8999999999999995 3.1000000000000014 -1.299999999999999 196 196 196
-2.8999999999999995 3.1000000000000014 -1.0999999999999996 196 196 196
-2.8999999999999995 3.1000000000000014 1.5 196 196 196
-2.8999999999999995 3.1000000000000014 1.700000000000001 196 196 196
-2.8999999999999995 3.1000000000000014 1.9000000000000004 196 196 196
-2.8999999999999995 3.3000000000000007 -1.9000000000000004 196 196 196
-2.8999999999999995 3.3000000000000007 -1.6999999999999993 196 196 196
-2.8999999999999995 3.3000000000000007 -0.9000000000000004 196 196 196
-2.8999999999999995 3.3000000000000007 -0.6999999999999993 196 196 196
-2.8999999999999995 3.3000000000000007 0.3000000000000007 196 196 196
-2.8999999999999995 3.3000000000000007 0.5 196 196 196
-2.8999999999999995 3.3000000000000007 0.7000000000000011 196 196 196
-2.8999999999999995 3.3000000000000007 0.9000000000000004 196 196 196
-2.8999999999999995 3.3000000000000007 1.1000000000000014 196 196 196
-2.8999999999999995 3.3000000000000007 1.3000000000000007 196 196 196
-2.8999999999999995 3.3000000000000007 1.5 196 196 196
-2.8999999999999995 3.5 -1.5 196 196 196
-2.8999999999999995 3.5 -1.299999999999999 196 196 196
-2.8999999999999995 3.5 -1.0999999999999996 196 196 196
-2.8999999999999995 3.5 0.7000000000000011 196 196 196
-2.8999999999999995 3.5 0.9000000000000004 196 196 196
-2.8999999999999995 3.5 1.1000000000000014 196 196 196
-2.8999999999999995 3.700000000000001 -0.9000000000000004 196 196 196
-2.8999999999999995 3.700000000000001 -0.6999999999999993 196 196 196
-2.8999999999999995 3.700000000000001 -0.5 196 196 196
-2.8999999999999995 3.700000000000001 -0.29999999999999893 196 196 196
-2.8999999999999995 3.700000000000001 -0.09999999999999964 196 196 196
-2.8999999999999995 3.700000000000001 0.10000000000000142 196 196 196
-2.8999999999999995 3.700000000000001 0.3000000000000007 196 196 196
-2.8999999999999995 3.700000000000001 0.5 196 196 196
-2.6999999999999993 -7.9 -0.09999999999999964 196 196 196
-2.6999999999999993 -7.9 0.10000000000000142 196 196 196
-2.6999999999999993 -7.9 0.3000000000000007 196 196 196
-2.6999999999999993 -7.699999999999999 -0.29999999999999893 196 196 196
-2.6999999999999993 -7.699999999999999 0.5 196 196 196
-2.6999999999999993 -7.5 -0.5 196 196 196
-2.6999999999999993 -7.5 0.9000000000000004 196 196 196
-2.6999999999999993 -7.5 1.1000000000000014 196 196 196
-2.6999999999999993 -7.5 1.3000000000000007 196 196 196
-2.6999999999999993 -7.3 1.700000000000001 196 196 196
-2.6999999999999993 -7.3 1.9000000000000004 196 196 196
-2.6999999999999993 -6.9 -1.0999999999999996 196 196 196
-2.6999999999999993 -6.9 -0.9000000000000004 196 196 196
-2.6999999999999993 -6.9 -0.6999999999999993 196 196 196
-2.6999999999999993 -6.9 3.3000000000000007 196 196 196
-2.6999999999999993 -6.699999999999999 -1.5 196 196 196
-2.6999999999999993 -6.699999999999999 -1.299999999999999 196 196 196
-2.6999999999999993 -6.699999999999999 3.1000000000000014 196 196 196
-2.6999999999999993 -6.699999999999999 3.700000000000001 196 196 196
-2.6999999999999993 -6.699999999999999 3.9000000000000004 196 196 196
-2.6999999999999993 -6.5 -2.0999999999999996 196 196 196
-2.6999999999999993 -6.5 -1.6999999999999993 196 196 196
-2.6999999999999993 -6.5 -1.5 196 196 196
-2.6999999999999993 -6.5 4.300000000000001 196 196 196
-2.6999999999999993 -6.5 4.5 196 196 196
-2.6999999999999993 -6.3 -2.0999999999999996 196 196 196
-2.6999999999999993 -6.3 -1.6999999999999993 196 196 196
-2.6999999999999993 -6.3 2.700000000000001 196 196 196
-2.6999999999999993 -6.3 4.9 196 196 196
-2.6999999999999993 -6.1 -2.3 196 196 196
-2.6999999999999993 -6.1 -1.9000000000000004 196 196 196
-2.6999999999999993 -6.1 2.700000000000001 196 196 196
-2.6999999999999993 -6.1 2.9000000000000004 196 196 196
-2.6999999999999993 -5.8999999999999995 -2.3 196 196 196
-2.6999999999999993 -5.8999999999999995 -2.0999999999999996 196 196 196
-2.6999999999999993 -5.7 -2.3 196 196 196
-2.6999999999999993 -5.5 -3.3 196 196 196
-2.6999999999999993 -5.5 3.9000000000000004 196 196 196
-2.6999999999999993 -5.5 4.100000000000001 196 196 196
-2.6999999999999993 -5.3 -3.3 196 196 196
-2.6999999999999993 -5.3 -2.5 196 196 196
-2.6999999999999993 -5.1 -3.5 196 196 196
-2.6999999999999993 -4.8999999999999995 -3.0999999999999996 196 196 196
-2.6999999999999993 -4.8999999999999995 -2.8999999999999995 196 196 196
-2.6999999999999993 -4.8999999999999995 -2.6999999999999993 196 196 196
-2.6999999999999993 -4.699999999999999 -3.8999999999999995 196 196 196
-2.6999999999999993 -4.699999999999999 -2.8999999999999995 196 196 196
-2.6999999999999993 -4.5 -3.8999999999999995 196 196 196
-2.6999999999999993 -4.5 6.100000000000001 196 196 196
-2.6999999999999993 -4.3 -3.8999999999999995 196 196 196
-2.6999999999999993 -4.3 6.5 196 196 196
-2.6999999999999993 -4.1 -4.1 196 196 196
-2.6999999999999993 -3.8999999999999995 -4.3 196 196 196
-2.6999999999999993 -3.8999999999999995 -3.3 196 196 196
-2.6999999999999993 -3.8999999999999995 7.300000000000001 196 196 196
-2.6999999999999993 -3.6999999999999993 -4.3 196 196 196
-2.6999999999999993 -3.6999999999999993 -3.8999999999999995 196 196 196
-2.6999999999999993 -3.6999999999999993 -3.5 196 196 196
-2.6999999999999993 -3.5 -4.3 196 196 196
-2.6999999999999993 -3.5 -3.8999999999999995 196 196 196
-2.6999999999999993 -3.5 7.100000000000001 196 196 196
-2.6999999999999993 -3.5 7.300000000000001 196 196 196
-2.6999999999999993 -3.3 -4.3 196 196 196
-2.6999999999999993 -3.3 -3.8999999999999995 196 196 196
-2.6999999999999993 -3.3 6.900000000000002 196 196 196
-2.6999999999999993 -3.3 7.100000000000001 196 196 196
-2.6999999999999993 -3.0999999999999996 -4.5 196 196 196
-2.6999999999999993 -3.0999999999999996 6.5 196 196 196
-2.6999999999999993 -3.0999999999999996 6.699999999999999 196 196 196
-2.6999999999999993 -3.0999999999999996 7.100000000000001 196 196 196
-2.6999999999999993 -2.8999999999999995 -4.5 196 196 196
-2.6999999999999993 -2.8999999999999995 -4.1 196 196 196
-2.6999999999999993 -2.8999999999999995 -3.6999999999999993 196 196 196
-2.6999999999999993 -2.8999999999999995 6.300000000000001 196 196 196
-2.6999999999999993 -2.8999999999999995 6.699999999999999 196 196 196
-2.6999999999999993 -2.8999999999999995 6.900000000000002 196 196 196
-2.6999999999999993 -2.8999999999999995 7.100000000000001 196 196 196
-2.6999999999999993 -2.6999999999999993 -4.5 196 196 196
-2.6999999999999993 -2.6999999999999993 6.300000000000001 196 196 196
-2.6999999999999993 -2.6999999999999993 6.699999999999999 196 196 196
-2.6999999999999993 -2.6999999999999993 6.900000000000002 196 196 196
-2.6999999999999993 -2.5 -4.5 196 196 196
-2.6999999999999993 -2.5 6.900000000000002 196 196 196
-2.6999999999999993 -2.3 -4.5 196 196 196
-2.6999999999999993 -2.3 -4.3 196 196 196
-2.6999999999999993 -2.3 6.100000000000001 196 196 196
-2.6999999999999993 -2.3 6.699999999999999 196 196 196
-2.6999999999999993 -2.3 6.900000000000002 196 196 196
-2.6999999999999993 -2.0999999999999996 -4.5 196 196 196
-2.6999999999999993 -2.0999999999999996 -4.1 196 196 196
-2.6999999999999993 -2.0999999999999996 6.300000000000001 196 196 196
-2.6999999999999993 -2.0999999999999996 6.699999999999999 196 196 196
-2.6999999999999993 -2.0999999999999996 6.900000000000002 196 196 196
-2.6999999999999993 -1.9000000000000004 -4.3 196 196 196
-2.6999999999999993 -1.9000000000000004 -4.1 196 196 196
-2.6999999999999993 -1.9000000000000004 5.9 196 196 196
-2.6999999999999993 -1.9000000000000004 6.300000000000001 196 196 196
-2.6999999999999993 -1.9000000000000004 6.5 196 196 196
-2.6999999999999993 -1.9000000000000004 6.699999999999999 196 196 196
-2.6999999999999993 -1.9000000000000004 6.900000000000002 196 196 196
-2.6999999999999993 -1.6999999999999993 -4.3 196 196 196
-2.6999999999999993 -1.6999999999999993 -4.1 196 196 196
-2.6999999999999993 -1.6999999999999993 6.5 196 196 196
-2.6999999999999993 -1.6999999999999993 6.699999999999999 196 196 196
-2.6999999999999993 -1.5 -4.1 196 196 196
-2.6999999999999993 -1.5 -3.8999999999999995 196 196 196
-2.6999999999999993 -1.5 6.100000000000001 196 196 196
-2.6999999999999993 -1.5 6.5 196 196 196
-2.6999999999999993 -1.299999999999999 -3.8999999999999995 196 196 196
-2.6999999999999993 -1.299999999999999 -3.6999999999999993 196 196 196
-2.6999999999999993 -1.299999999999999 6.100000000000001 196 196 196
-2.6999999999999993 -1.299999999999999 6.300000000000001 196 196 196
-2.6999999999999993 -1.0999999999999996 -3.8999999999999995 196 196 196
-2.6999999999999993 -1.0999999999999996 -3.6999999999999993 196 196 196
-2.6999999999999993 -1.0999999999999996 -3.5 196 196 196
-2.6999999999999993 -1.0999999999999996 4.300000000000001 196 196 196
-2.6999999999999993 -1.0999999999999996 6.100000000000001 196 196 196
-2.6999999999999993 -1.0999999999999996 6.300000000000001 196 196 196
-2.6999999999999993 -0.9000000000000004 -3.6999999999999993 196 196 196
-2.6999999999999993 -0.9000000000000004 -3.3 196 196 196
-2.6999999999999993 -0.9000000000000004 4.100000000000001 196 196 196
-2.6999999999999993 -0.9000000000000004 6.100000000000001 196 196 196
-2.6999999999999993 -0.9000000000000004 6.300000000000001 196 196 196
-2.6999999999999993 -0.6999999999999993 -3.6999999999999993 196 196 196
-2.6999999999999993 -0.6999999999999993 -3.5 196 196 196
-2.6999999999999993 -0.6999999999999993 -3.3 196 196 196
-2.6999999999999993 -0.6999999999999993 5.9 196 196 196
-2.6999999999999993 -0.6999999999999993 6.100000000000001 196 196 196
-2.6999999999999993 -0.5 -3.6999999999999993 196 196 196
-2.6999999999999993 -0.5 5.700000000000001 196 196 196
-2.6999999999999993 -0.5 6.100000000000001 196 196 196
-2.6999999999999993 -0.29999999999999893 -3.8999999999999995 196 196 196
-2.6999999999999993 -0.29999999999999893 -3.6999999999999993 196 196 196
-2.6999999999999993 -0.29999999999999893 5.5 196 196 196
-2.6999999999999993 -0.29999999999999893 5.700000000000001 196 196 196
-2.6999999999999993 -0.29999999999999893 5.9 196 196 196
-2.6999999999999993 -0.29999999999999893 6.100000000000001 196 196 196
-2.6999999999999993 -0.09999999999999964 -3.8999999999999995 196 196 196
-2.6999999999999993 -0.09999999999999964 -3.6999999999999993 196 196 196
-2.6999999999999993 -0.09999999999999964 5.700000000000001 196 196 196
-2.6999999999999993 -0.09999999999999964 5.9 196 196 196
-2.6999999999999993 0.10000000000000142 -3.8999999999999995 196 196 196
-2.6999999999999993 0.10000000000000142 -3.6999999999999993 196 196 196
-2.6999999999999993 0.10000000000000142 5.5 196 196 196
-2.6999999999999993 0.10000000000000142 5.700000000000001 196 196 196
-2.6999999999999993 0.10000000000000142 5.9 196 196 196
-2.6999999999999993 0.3000000000000007 -3.6999999999999993 196 196 196
-2.6999999999999993 0.3000000000000007 5.300000000000001 196 196 196
-2.6999999999999993 0.3000000000000007 5.5 196 196 196
-2.6999999999999993 0.3000000000000007 5.700000000000001 196 196 196
-2.6999999999999993 0.5 -3.6999999999999993 196 196 196
-2.6999999999999993 0.5 5.100000000000001 196 196 196
-2.6999999999999993 0.5 5.300000000000001 196 196 196
-2.6999999999999993 0.5 5.5 196 196 196
-2.6999999999999993 0.7000000000000011 -3.6999999999999993 196 196 196
-2.6999999999999993 0.7000000000000011 -3.3 196 196 196
-2.6999999999999993 0.7000000000000011 4.9 196 196 196
-2.6999999999999993 0.7000000000000011 5.100000000000001 196 196 196
-2.6999999999999993 0.7000000000000011 5.300000000000001 196 196 196
-2.6999999999999993 0.9000000000000004 -3.5 196 196 196
-2.6999999999999993 0.9000000000000004 -3.3 196 196 196
-2.6999999999999993 0.9000000000000004 4.9 196 196 196
-2.6999999999999993 0.9000000000000004 5.100000000000001 196 196 196
-2.6999999999999993 1.1000000000000014 -3.5 196 196 196
-2.6999999999999993 1.1000000000000014 -3.3 196 196 196
-2.6999999999999993 1.1000000000000014 4.700000000000001 196 196 196
-2.6999999999999993 1.1000000000000014 4.9 196 196 196
-2.6999999999999993 1.1000000000000014 5.100000000000001 196 196 196
-2.6999999999999993 1.3000000000000007 -3.5 196 196 196
-2.6999999999999993 1.3000000000000007 -3.3 196 196 196
-2.6999999999999993 1.3000000000000007 4.5 196 196 196
-2.6999999999999993 1.3000000000000007 4.700000000000001 196 196 196
-2.6999999999999993 1.3000000000000007 4.9 196 196 196
-2.6999999999999993 1.5 -3.3 196 196 196
-2.6999999999999993 1.5 -3.0999999999999996 196 196 196
-2.6999999999999993 1.5 4.100000000000001 196 196 196
-2.6999999999999993 1.5 4.300000000000001 196 196 196
-2.6999999999999993 1.5 4.5 196 196 196
-2.6999999999999993 1.700000000000001 -3.0999999999999996 196 196 196
-2.6999999999999993 1.700000000000001 3.1000000000000014 196 196 196
-2.6999999999999993 1.700000000000001 3.3000000000000007 196 196 196
-2.6999999999999993 1.700000000000001 3.700000000000001 196 196 196
-2.6999999999999993 1.700000000000001 3.9000000000000004 196 196 196
-2.6999999999999993 1.700000000000001 4.100000000000001 196 196 196
-2.6999999999999993 1.700000000000001 4.300000000000001 196 196 196
-2.6999999999999993 1.700000000000001 4.5 196 196 196
-2.6999999999999993 1.9000000000000004 -3.0999999999999996 196 196 196
-2.6999999999999993 1.9000000000000004 -2.8999999999999995 196 196 196
-2.6999999999999993 1.9000000000000004 2.9000000000000004 196 196 196
-2.6999999999999993 1.9000000000000004 3.1000000000000014 196 196 196
-2.6999999999999993 2.1000000000000014 -2.8999999999999995 196 196 196
-2.6999999999999993 2.1000000000000014 -2.6999999999999993 196 196 196
-2.6999999999999993 2.1000000000000014 2.700000000000001 196 196 196
-2.6999999999999993 2.1000000000000014 2.9000000000000004 196 196 196
-2.6999999999999993 2.1000000000000014 3.1000000000000014 196 196 196
-2.6999999999999993 2.3000000000000007 -2.6999999999999993 196 196 196
-2.6999999999999993 2.3000000000000007 -2.5 196 196 196
-2.6999999999999993 2.3000000000000007 2.5 196 196 196
-2.6999999999999993 2.3000000000000007 2.700000000000001 196 196 196
-2.6999999999999993 2.5 -2.5 196 196 196
-2.6999999999999993 2.5 -2.3 196 196 196
-2.6999999999999993 2.5 2.3000000000000007 196 196 196
-2.6999999999999993 2.5 2.5 196 196 196
-2.6999999999999993 2.5 2.700000000000001 196 196 196
-2.6999999999999993 2.700000000000001 -2.3 196 196 196
-2.6999999999999993 2.700000000000001 -2.0999999999999996 196 196 196
-2.6999999999999993 2.700000000000001 2.5 196 196 196
-2.6999999999999993 2.9000000000000004 -1.9000000000000004 196 196 196
-2.6999999999999993 2.9000000000000004 -1.6999999999999993 196 196 196
-2.6999999999999993 2.9000000000000004 2.1000000000000014 196 196 196
-2.6999999999999993 2.9000000000000004 2.3000000000000007 196 196 196
-2.6999999999999993 3.1000000000000014 -2.0999999999999996 196 196 196
-2.6999999999999993 3.1000000000000014 -1.5 196 196 196
-2.6999999999999993 3.1000000000000014 -1.299999999999999 196 196 196
-2.6999999999999993 3.1000000000000014 -1.0999999999999996 196 196 196
-2.6999999999999993 3.1000000000000014 0.9000000000000004 196 196 196
-2.6999999999999993 3.1000000000000014 1.3000000000000007 196 196 196
-2.6999999999999993 3.1000000000000014 1.700000000000001 196 196 196
-2.6999999999999993 3.1000000000000014 1.9000000000000004 196 196 196
-2.6999999999999993 3.3000000000000007 -1.9000000000000004 196 196 196
-2.6999999999999993 3.3000000000000007 -1.6999999999999993 196 196 196
-2.6999999999999993 3.3000000000000007 -0.9000000000000004 196 196 196
-2.6999999999999993 3.3000000000000007 -0.6999999999999993 196 196 196
-2.6999999999999993 3.3000000000000007 0.3000000000000007 196 196 196
-2.6999999999999993 3.3000000000000007 0.5 196 196 196
-2.6999999999999993 3.3000000000000007 0.7000000000000011 196 196 196
-2.6999999999999993 3.3000000000000007 0.9000000000000004 196 196 196
-2.6999999999999993 3.3000000000000007 1.1000000000000014 196 196 196
-2.6999999999999993 3.3000000000000007 1.3000000000000007 196 196 196
-2.6999999999999993 3.3000000000000007 1.5 196 196 196
-2.6999999999999993 3.5 -1.5 196 196 196
-2.6999999999999993 3.5 -1.299999999999999 196 196 196
-2.6999999999999993 3.5 -1.0999999999999996 196 196 196
-2.6999999999999993 3.5 0.5 196 196 196
-2.6999999999999993 3.5 0.7000000000000011 196 196 196
-2.6999999999999993 3.5 0.9000000000000004 196 196 196
-2.6999999999999993 3.700000000000001 -0.9000000000000004 196 196 196
-2.6999999999999993 3.700000000000001 -0.6999999999999993 196 196 196
-2.6999999999999993 3.700000000000001 -0.5 196 196 196
-2.6999999999999993 3.700000000000001 -0.29999999999999893 196 196 196
-2.6999999999999993 3.700000000000001 -0.09999999999999964 196 196 196
-2.6999999999999993 3.700000000000001 0.10000000000000142 196 196 196
-2.6999999999999993 3.700000000000001 0.3000000000000007 196 196 196
-2.5 -7.9 -0.29999999999999893 196 196 196
-2.5 -7.9 -0.09999999999999964 196 196 196
-2.5 -7.9 0.10000000000000142 196 196 196
-2.5 -7.699999999999999 0.3000000000000007 196 196 196
-2.5 -7.699999999999999 0.5 196 196 196
-2.5 -7.5 -0.5 196 196 196
-2.5 -7.3 0.7000000000000011 196 196 196
-2.5 -7.3 0.9000000000000004 196 196 196
-2.5 -7.3 1.1000000000000014 196 196 196
-2.5 -7.3 1.3000000000000007 196 196 196
-2.5 -7.3 1.5 196 196 196
-2.5 -7.3 1.700000000000001 196 196 196
-2.5 -7.1 1.9000000000000004 196 196 196
-2.5 -7.1 2.1000000000000014 196 196 196
-2.5 -6.9 -1.0999999999999996 196 196 196
-2.5 -6.9 -0.9000000000000004 196 196 196
-2.5 -6.9 -0.6999999999999993 196 196 196
-2.5 -6.9 3.3000000000000007 196 196 196
-2.5 -6.699999999999999 -1.5 196 196 196
-2.5 -6.699999999999999 -1.299999999999999 196 196 196
-2.5 -6.699999999999999 3.1000000000000014 196 196 196
-2.5 -6.699999999999999 3.3000000000000007 196 196 196
-2.5 -6.699999999999999 3.5 196 196 196
-2.5 -6.699999999999999 3.700000000000001 196 196 196
-2.5 -6.699999999999999 3.9000000000000004 196 196 196
-2.5 -6.5 -2.3 196 196 196
-2.5 -6.5 -2.0999999999999996 196 196 196
-2.5 -6.5 -1.6999999999999993 196 196 196
-2.5 -6.5 1.700000000000001 196 196 196
-2.5 -6.5 4.100000000000001 196 196 196
-2.5 -6.5 4.300000000000001 196 196 196
-2.5 -6.5 4.5 196 196 196
-2.5 -6.3 -2.0999999999999996 196 196 196
-2.5 -6.3 2.1000000000000014 196 196 196
-2.5 -6.3 2.5 196 196 196
-2.5 -6.3 2.700000000000001 196 196 196
-2.5 -6.3 4.9 196 196 196
-2.5 -6.1 -2.3 196 196 196
-2.5 -6.1 -2.0999999999999996 196 196 196
-2.5 -6.1 -1.9000000000000004 196 196 196
-2.5 -6.1 -1.6999999999999993 196 196 196
-2.5 -6.1 2.700000000000001 196 196 196
-2.5 -5.8999999999999995 -2.3 196 196 196
-2.5 -5.8999999999999995 -2.0999999999999996 196 196 196
-2.5 -5.7 -3.0999999999999996 196 196 196
-2.5 -5.7 -2.5 196 196 196
-2.5 -5.7 -2.3 196 196 196
-2.5 -5.5 -3.3 196 196 196
-2.5 -5.5 -2.5 196 196 196
-2.5 -5.5 3.9000000000000004 196 196 196
-2.5 -5.5 4.100000000000001 196 196 196
-2.5 -5.3 -3.5 196 196 196
-2.5 -5.3 -3.3 196 196 196
-2.5 -5.3 -2.6999999999999993 196 196 196
-2.5 -5.1 -3.5 196 196 196
-2.5 -5.1 -2.6999999999999993 196 196 196
-2.5 -4.8999999999999995 -2.8999999999999995 196 196 196
-2.5 -4.8999999999999995 -2.6999999999999993 196 196 196
-2.5 -4.8999999999999995 5.5 196 196 196
-2.5 -4.699999999999999 -3.8999999999999995 196 196 196
-2.5 -4.699999999999999 -2.8999999999999995 196 196 196
-2.5 -4.5 -3.8999999999999995 196 196 196
-2.5 -4.5 -3.3 196 196 196
-2.5 -4.5 -3.0999999999999996 196 196 196
-2.5 -4.3 -4.1 196 196 196
-2.5 -4.3 -3.8999999999999995 196 196 196
-2.5 -4.3 6.5 196 196 196
-2.5 -4.1 -4.3 196 196 196
-2.5 -4.1 -4.1 196 196 196
-2.5 -4.1 -3.5 196 196 196
-2.5 -4.1 -3.3 196 196 196
-2.5 -3.8999999999999995 -4.3 196 196 196
-2.5 -3.6999999999999993 -4.3 196 196 196
-2.5 -3.6999999999999993 -3.8999999999999995 196 196 196
-2.5 -3.6999999999999993 -3.5 196 196 196
-2.5 -3.6999999999999993 7.100000000000001 196 196 196
-2.5 -3.5 -4.3 196 196 196
-2.5 -3.5 -3.8999999999999995 196 196 196
-2.5 -3.5 7.100000000000001 196 196 196
-2.5 -3.5 7.300000000000001 196 196 196
-2.5 -3.5 7.5 196 196 196
-2.5 -3.3 -4.5 196 196 196
-2.5 -3.3 6.5 196 196 196
-2.5 -3.3 7.100000000000001 196 196 196
-2.5 -3.3 7.300000000000001 196 196 196
-2.5 -3.0999999999999996 -4.5 196 196 196
-2.5 -3.0999999999999996 6.5 196 196 196
-2.5 -3.0999999999999996 6.900000000000002 196 196 196
-2.5 -3.0999999999999996 7.100000000000001 196 196 196
-2.5 -2.8999999999999995 -4.5 196 196 196
-2.5 -2.8999999999999995 -3.6999999999999993 196 196 196
-2.5 -2.8999999999999995 6.300000000000001 196 196 196
-2.5 -2.8999999999999995 6.699999999999999 196 196 196
-2.5 -2.8999999999999995 6.900000000000002 196 196 196
-2.5 -2.6999999999999993 -4.5 196 196 196
-2.5 -2.6999999999999993 6.300000000000001 196 196 196
-2.5 -2.6999999999999993 6.699999999999999 196 196 196
-2.5 -2.6999999999999993 6.900000000000002 196 196 196
-2.5 -2.5 -4.5 196 196 196
-2.5 -2.5 -4.3 196 196 196
-2.5 -2.5 -3.6999999999999993 196 196 196
-2.5 -2.5 6.900000000000002 196 196 196
-2.5 -2.5 7.100000000000001 196 196 196
-2.5 -2.3 -4.5 196 196 196
-2.5 -2.3 -4.3 196 196 196
-2.5 -2.3 6.100000000000001 196 196 196
-2.5 -2.3 6.900000000000002 196 196 196
-2.5 -2.0999999999999996 -4.5 196 196 196
-2.5 -2.0999999999999996 -4.3 196 196 196
-2.5 -2.0999999999999996 -4.1 196 196 196
-2.5 -2.0999999999999996 6.699999999999999 196 196 196
-2.5 -2.0999999999999996 6.900000000000002 196 196 196
-2.5 -1.9000000000000004 -4.5 196 196 196
-2.5 -1.9000000000000004 -4.3 196 196 196
-2.5 -1.9000000000000004 -4.1 196 196 196
-2.5 -1.9000000000000004 5.9 196 196 196
-2.5 -1.9000000000000004 6.300000000000001 196 196 196
-2.5 -1.9000000000000004 6.5 196 196 196
-2.5 -1.9000000000000004 6.699999999999999 196 196 196
-2.5 -1.6999999999999993 -4.3 196 196 196
-2.5 -1.6999999999999993 -4.1 196 196 196
-2.5 -1.6999999999999993 -3.5 196 196 196
-2.5 -1.6999999999999993 6.300000000000001 196 196 196
-2.5 -1.6999999999999993 6.5 196 196 196
-2.5 -1.6999999999999993 6.699999999999999 196 196 196
-2.5 -1.5 -4.3 196 196 196
-2.5 -1.5 -4.1 196 196 196
-2.5 -1.5 -3.8999999999999995 196 196 196
-2.5 -1.5 -3.5 196 196 196
-2.5 -1.5 6.300000000000001 196 196 196
-2.5 -1.5 6.5 196 196 196
-2.5 -1.5 6.699999999999999 196 196 196
-2.5 -1.299999999999999 -3.8999999999999995 196 196 196
-2.5 -1.299999999999999 -3.6999999999999993 196 196 196
-2.5 -1.299999999999999 -3.5 196 196 196
-2.5 -1.299999999999999 5.9 196 196 196
-2.5 -1.299999999999999 6.100000000000001 196 196 196
-2.5 -1.299999999999999 6.300000000000001 196 196 196
-2.5 -1.299999999999999 6.5 196 196 196
-2.5 -1.0999999999999996 -3.6999999999999993 196 196 196
-2.5 -1.0999999999999996 5.700000000000001 196 196 196
-2.5 -1.0999999999999996 5.9 196 196 196
-2.5 -1.0999999999999996 6.100000000000001 196 196 196
-2.5 -1.0999999999999996 6.300000000000001 196 196 196
-2.5 -0.9000000000000004 -3.6999999999999993 196 196 196
-2.5 -0.9000000000000004 6.100000000000001 196 196 196
-2.5 -0.9000000000000004 6.300000000000001 196 196 196
-2.5 -0.6999999999999993 -3.6999999999999993 196 196 196
-2.5 -0.6999999999999993 -3.5 196 196 196
-2.5 -0.6999999999999993 -3.3 196 196 196
-2.5 -0.6999999999999993 5.9 196 196 196
-2.5 -0.6999999999999993 6.100000000000001 196 196 196
-2.5 -0.5 -3.8999999999999995 196 196 196
-2.5 -0.5 -3.6999999999999993 196 196 196
-2.5 -0.5 5.700000000000001 196 196 196
-2.5 -0.5 5.9 196 196 196
-2.5 -0.5 6.100000000000001 196 196 196
-2.5 -0.29999999999999893 -3.8999999999999995 196 196 196
-2.5 -0.29999999999999893 -3.6999999999999993 196 196 196
-2.5 -0.29999999999999893 5.300000000000001 196 196 196
-2.5 -0.29999999999999893 5.700000000000001 196 196 196
-2.5 -0.29999999999999893 5.9 196 196 196
-2.5 -0.29999999999999893 6.100000000000001 196 196 196
-2.5 -0.09999999999999964 -3.8999999999999995 196 196 196
-2.5 -0.09999999999999964 -3.6999999999999993 196 196 196
-2.5 -0.09999999999999964 5.5 196 196 196
-2.5 -0.09999999999999964 5.700000000000001 196 196 196
-2.5 -0.09999999999999964 5.9 196 196 196
-2.5 0.10000000000000142 -3.8999999999999995 196 196 196
-2.5 0.10000000000000142 -3.6999999999999993 196 196 196
-2.5 0.10000000000000142 5.300000000000001 196 196 196
-2.5 0.10000000000000142 5.5 196 196 196
-2.5 0.10000000000000142 5.700000000000001 196 196 196
-2.5 0.10000000000000142 5.9 196 196 196
-2.5 0.3000000000000007 -3.8999999999999995 196 196 196
-2.5 0.3000000000000007 -3.6999999999999993 196 196 196
-2.5 0.3000000000000007 5.5 196 196 196
-2.5 0.3000000000000007 5.700000000000001 196 196 196
-2.5 0.5 -3.6999999999999993 196 196 196
-2.5 0.5 5.100000000000001 196 196 196
-2.5 0.5 5.300000000000001 196 196 196
-2.5 0.5 5.5 196 196 196
-2.5 0.5 5.700000000000001 196 196 196
-2.5 0.7000000000000011 -3.6999999999999993 196 196 196
-2.5 0.7000000000000011 4.9 196 196 196
-2.5 0.7000000000000011 5.100000000000001 196 196 196
-2.5 0.7000000000000011 5.300000000000001 196 196 196
-2.5 0.7000000000000011 5.5 196 196 196
-2.5 0.9000000000000004 -3.6999999999999993 196 196 196
-2.5 0.9000000000000004 -3.5 196 196 196
-2.5 0.9000000000000004 5.100000000000001 196 196 196
-2.5 0.9000000000000004 5.300000000000001 196 196 196
-2.5 1.1000000000000014 -3.5 196 196 196
-2.5 1.1000000000000014 -3.3 196 196 196
-2.5 1.1000000000000014 4.700000000000001 196 196 196
-2.5 1.1000000000000014 4.9 196 196 196
-2.5 1.1000000000000014 5.100000000000001 196 196 196
-2.5 1.3000000000000007 -3.5 196 196 196
-2.5 1.3000000000000007 -3.3 196 196 196
-2.5 1.3000000000000007 4.5 196 196 196
-2.5 1.3000000000000007 4.700000000000001 196 196 196
-2.5 1.3000000000000007 4.9 196 196 196
-2.5 1.5 -3.3 196 196 196
-2.5 1.5 4.300000000000001 196 196 196
-2.5 1.5 4.5 196 196 196
-2.5 1.5 4.700000000000001 196 196 196
-2.5 1.700000000000001 -3.3 196 196 196
-2.5 1.700000000000001 -3.0999999999999996 196 196 196
-2.5 1.700000000000001 3.1000000000000014 196 196 196
-2.5 1.700000000000001 3.3000000000000007 196 196 196
-2.5 1.700000000000001 3.5 196 196 196
-2.5 1.700000000000001 3.700000000000001 196 196 196
-2.5 1.700000000000001 3.9000000000000004 196 196 196
-2.5 1.700000000000001 4.100000000000001 196 196 196
-2.5 1.700000000000001 4.300000000000001 196 196 196
-2.5 1.700000000000001 4.5 196 196 196
-2.5 1.9000000000000004 -3.0999999999999996 196 196 196
-2.5 1.9000000000000004 2.9000000000000004 196 196 196
-2.5 1.9000000000000004 3.1000000000000014 196 196 196
-2.5 1.9000000000000004 3.3000000000000007 196 196 196
-2.5 1.9000000000000004 3.5 196 196 196
-2.5 1.9000000000000004 3.700000000000001 196 196 196
-2.5 1.9000000000000004 3.9000000000000004 196 196 196
-2.5 1.9000000000000004 4.100000000000001 196 196 196
-2.5 2.1000000000000014 -2.8999999999999995 196 196 196
-2.5 2.1000000000000014 2.700000000000001 196 196 196
-2.5 2.1000000000000014 2.9000000000000004 196 196 196
-2.5 2.1000000000000014 3.1000000000000014 196 196 196
-2.5 2.3000000000000007 -2.6999999999999993 196 196 196
-2.5 2.3000000000000007 2.5 196 196 196
-2.5 2.3000000000000007 2.700000000000001 196 196 196
-2.5 2.3000000000000007 2.9000000000000004 196 196 196
-2.5 2.5 -2.5 196 196 196
-2.5 2.5 -2.3 196 196 196
-2.5 2.5 2.3000000000000007 196 196 196
-2.5 2.5 2.5 196 196 196
-2.5 2.5 2.700000000000001 196 196 196
-2.5 2.700000000000001 -2.5 196 196 196
-2.5 2.700000000000001 -2.3 196 196 196
-2.5 2.700000000000001 -2.0999999999999996 196 196 196
-2.5 2.700000000000001 2.1000000000000014 196 196 196
-2.5 2.700000000000001 2.3000000000000007 196 196 196
-2.5 2.700000000000001 2.5 196 196 196
-2.5 2.9000000000000004 -1.9000000000000004 196 196 196
-2.5 2.9000000000000004 -1.6999999999999993 196 196 196
-2.5 2.9000000000000004 1.700000000000001 196 196 196
-2.5 2.9000000000000004 1.9000000000000004 196 196 196
-2.5 2.9000000000000004 2.1000000000000014 196 196 196
-2.5 2.9000000000000004 2.3000000000000007 196 196 196
-2.5 3.1000000000000014 -2.0999999999999996 196 196 196
-2.5 3.1000000000000014 -1.9000000000000004 196 196 196
-2.5 3.1000000000000014 -1.5 196 196 196
-2.5 3.1000000000000014 -1.299999999999999 196 196 196
-2.5 3.1000000000000014 1.3000000000000007 196 196 196
-2.5 3.1000000000000014 1.5 196 196 196
-2.5 3.1000000000000014 1.700000000000001 196 196 196
-2.5 3.1000000000000014 1.9000000000000004 196 196 196
-2.5 3.1000000000000014 2.1000000000000014 196 196 196
-2.5 3.3000000000000007 -1.9000000000000004 196 196 196
-2.5 3.3000000000000007 -1.6999999999999993 196 196 196
-2.5 3.3000000000000007 -1.5 196 196 196
-2.5 3.3000000000000007 -0.9000000000000004 196 196 196
-2.5 3.3000000000000007 -0.6999999999999993 196 196 196
-2.5 3.3000000000000007 0.5 196 196 196
-2.5 3.3000000000000007 0.7000000000000011 196 196 196
-2.5 3.3000000000000007 0.9000000000000004 196 196 196
-2.5 3.3000000000000007 1.1000000000000014 196 196 196
-2.5 3.3000000000000007 1.3000000000000007 196 196 196
-2.5 3.5 0.5 196 196 196
-2.5 3.5 0.7000000000000011 196 196 196
-2.5 3.5 0.9000000000000004 196 196 196
-2.5 3.700000000000001 -0.5 196 196 196
-2.5 3.700000000000001 -0.29999999999999893 196 196 196
-2.5 3.700000000000001 -0.09999999999999964 196 196 196
-2.5 3.700000000000001 0.10000000000000142 196 196 196
-2.5 3.700000000000001 0.3000000000000007 196 196 196
-2.5 7.900000000000002 -0.29999999999999893 196 196 196
-2.5 7.900000000000002 -0.09999999999999964 196 196 196
-2.5 8.100000000000001 -0.29999999999999893 196 196 196
-2.5 8.100000000000001 -0.09999999999999964 196 196 196
-2.5 8.3 -0.29999999999999893 196 196 196
-2.5 8.3 -0.09999999999999964 196 196 196
-2.5 8.3 0.10000000000000142 196 196 196
-2.5 8.5 -0.29999999999999893 196 196 196
-2.5 8.5 -0.09999999999999964 196 196 196
-2.5 8.5 0.10000000000000142 196 196 196
-2.5 8.5 0.3000000000000007 196 196 196
-2.5 8.7 -0.29999999999999893 196 196 196
-2.5 8.7 -0.09999999999999964 196 196 196
-2.5 8.7 0.10000000000000142 196 196 196
-2.5 8.7 0.3000000000000007 196 196 196
-2.5 8.900000000000002 -0.5 196 196 196
-2.5 8.900000000000002 -0.29999999999999893 196 196 196
-2.5 8.900000000000002 -0.09999999999999964 196 196 196
-2.5 8.900000000000002 0.10000000000000142 196 196 196
-2.5 8.900000000000002 0.3000000000000007 196 196 196
-2.5 9.100000000000001 -0.5 196 196 196
-2.5 9.100000000000001 -0.29999999999999893 196 196 196
-2.5 9.100000000000001 -0.09999999999999964 196 196 196
-2.5 9.100000000000001 0.10000000000000142 196 196 196
-2.5 9.100000000000001 0.3000000000000007 196 196 196
-2.5 9.3 -0.29999999999999893 196 196 196
-2.5 9.3 -0.09999999999999964 196 196 196
-2.3 -7.9 -0.29999999999999893 196 196 196
-2.3 -7.9 -0.09999999999999964 196 196 196
-2.3 -7.9 0.10000000000000142 196 196 196
-2.3 -7.699999999999999 -0.29999999999999893 196 196 196
-2.3 -7.699999999999999 0.3000000000000007 196 196 196
-2.3 -7.5 -0.5 196 196 196
